ply
format ascii 1.0
comment Created by Open3D
element vertex 1857
property float x
property float y
property float z
end_header
4.15411 3.35757 -1.80777
4.14804 3.37452 -1.80976
4.14 3.37851 -1.80776
4.13594 3.39745 -1.81175
4.11483 3.40244 -1.80674
4.10475 3.41541 -1.80674
4.10371 3.43634 -1.81172
4.0836 3.44233 -1.80772
4.0946 3.47322 -1.8177
4.06348 3.45729 -1.80571
4.08049 3.49516 -1.81869
4.04835 3.4892 -1.80869
4.0443 3.50814 -1.81168
4.03623 3.5231 -1.81367
4.0362 3.54602 -1.81866
4.00506 3.54106 -1.80966
4.01106 3.558 -1.81465
3.99798 3.56898 -1.81365
3.99192 3.58693 -1.81664
3.97082 3.58994 -1.81164
3.97681 3.61784 -1.82062
3.95671 3.62284 -1.81562
3.94463 3.63581 -1.81561
3.94361 3.64579 -1.8186
3.93455 3.66075 -1.81959
3.92549 3.67571 -1.82059
3.9345 3.70661 -1.83057
3.90335 3.70165 -1.82157
3.89229 3.71363 -1.82156
3.87018 3.71664 -1.81656
3.89024 3.74753 -1.82954
3.86211 3.74456 -1.82155
3.86309 3.76849 -1.82753
3.83596 3.76553 -1.82053
3.83996 3.79344 -1.82852
3.81684 3.79546 -1.82252
3.82186 3.81241 -1.82851
3.79674 3.81044 -1.82151
3.78969 3.82839 -1.8245
3.75452 3.81746 -1.8125
3.76756 3.85435 -1.82548
3.7555 3.86633 -1.82547
3.74745 3.88229 -1.82746
3.75347 3.90023 -1.83345
3.72734 3.89927 -1.82645
3.72432 3.92021 -1.83144
3.70221 3.92223 -1.82644
3.69718 3.94119 -1.83043
3.68411 3.95218 -1.83042
3.66301 3.9542 -1.82542
3.67204 3.97712 -1.83341
3.65395 3.98313 -1.8304
3.65395 4.00807 -1.83739
3.62883 4.0061 -1.83039
3.62782 4.03004 -1.83637
3.60672 4.03306 -1.83237
3.59968 4.05003 -1.83536
3.57858 4.04009 -1.82837
3.57858 4.06602 -1.83435
3.5625 4.07302 -1.83235
3.55145 4.08701 -1.83434
3.54341 4.10398 -1.83633
3.53939 4.12493 -1.84132
3.51226 4.11998 -1.83432
3.51729 4.13893 -1.84031
3.49417 4.13797 -1.83431
3.48815 4.15793 -1.83829
3.48112 4.1759 -1.84228
3.46706 4.18589 -1.84128
3.44998 4.19191 -1.83927
3.43189 4.19792 -1.83627
3.42988 4.2089 -1.83926
3.41683 4.2199 -1.83926
3.40578 4.23288 -1.84025
3.39071 4.24289 -1.84024
3.38268 4.25886 -1.84323
3.36258 4.26289 -1.83923
3.34651 4.2699 -1.83822
3.34451 4.28188 -1.84022
3.33447 4.29686 -1.84321
3.31336 4.2969 -1.83821
3.30433 4.31288 -1.8402
3.29229 4.32687 -1.84219
3.26816 4.32392 -1.83619
3.26819 4.35187 -1.84417
3.25411 4.3469 -1.83918
3.24106 4.3579 -1.84017
3.23203 4.37489 -1.84316
3.21999 4.38788 -1.84415
3.20089 4.39091 -1.84015
3.19388 4.40989 -1.84514
3.18688 4.43086 -1.84912
3.17481 4.42789 -1.84613
3.16075 4.4379 -1.84612
3.14569 4.44691 -1.84511
3.13062 4.45493 -1.84511
3.1206 4.47092 -1.8471
3.10755 4.48193 -1.84809
3.09652 4.49692 -1.85008
3.09956 4.51588 -1.85607
3.08349 4.5239 -1.85507
3.06339 4.52394 -1.85107
3.04733 4.53296 -1.85106
3.03629 4.54696 -1.85305
3.01922 4.55199 -1.85105
3.01622 4.56298 -1.85304
3.01023 4.58495 -1.85903
2.97804 4.56905 -1.84804
2.97205 4.59103 -1.85302
2.96102 4.60603 -1.85501
2.94193 4.60907 -1.85301
2.93393 4.62706 -1.857
2.91985 4.6231 -1.853
2.91185 4.64109 -1.85699
2.89175 4.64313 -1.85299
2.88274 4.66013 -1.85698
2.86567 4.66616 -1.85497
2.85565 4.68316 -1.85896
2.83354 4.68122 -1.85397
2.8366 4.70118 -1.86095
2.81246 4.69625 -1.85496
2.80851 4.72222 -1.86194
2.78538 4.71829 -1.85694
2.77638 4.73728 -1.86093
2.75931 4.74232 -1.85893
2.74526 4.75334 -1.85992
2.74025 4.76034 -1.86092
2.74035 4.7953 -1.87189
2.70611 4.77142 -1.85891
2.70418 4.80338 -1.86789
2.68408 4.80344 -1.86489
2.67105 4.81546 -1.86588
2.65802 4.82748 -1.86787
2.65403 4.83748 -1.86987
2.63493 4.83953 -1.86787
2.61887 4.84657 -1.86686
2.60484 4.85859 -1.86785
2.5918 4.86962 -1.86985
2.57979 4.88463 -1.87184
2.55868 4.8827 -1.86784
2.5557 4.89569 -1.87183
2.54166 4.90672 -1.87282
2.52358 4.90977 -1.87082
2.50854 4.91981 -1.87182
2.49955 4.93881 -1.8758
2.47439 4.9289 -1.86881
2.46643 4.9519 -1.87479
2.46245 4.9639 -1.87779
2.44841 4.97393 -1.87878
2.42629 4.97001 -1.87378
2.4163 4.98902 -1.87877
2.39518 4.98509 -1.87377
2.38216 4.99912 -1.87677
2.36914 5.01215 -1.87876
2.35808 5.00919 -1.87576
2.33797 5.00826 -1.87276
2.33306 5.03925 -1.88174
2.31498 5.0423 -1.87974
2.29791 5.04636 -1.87874
2.28489 5.06039 -1.88173
2.26276 5.05347 -1.87573
2.2598 5.06947 -1.88072
2.2478 5.0855 -1.88371
2.22262 5.0716 -1.87572
2.2086 5.08364 -1.87771
2.19863 5.10466 -1.8837
2.18055 5.10672 -1.8817
2.16247 5.11078 -1.8797
2.15242 5.11082 -1.8787
2.13738 5.11887 -1.87969
2.12031 5.12393 -1.87869
2.10629 5.13597 -1.88068
2.08111 5.12208 -1.87269
2.06911 5.13711 -1.87568
2.05814 5.15814 -1.88167
2.043 5.14421 -1.87468
2.03406 5.16822 -1.88166
2.01294 5.16431 -1.87767
1.9979 5.17236 -1.87766
1.98184 5.17842 -1.87766
1.97088 5.20045 -1.88364
1.95179 5.20053 -1.88165
1.94172 5.19757 -1.87965
1.92466 5.20263 -1.87864
1.90658 5.20471 -1.87764
1.89257 5.21876 -1.87964
1.87957 5.2328 -1.88363
1.86353 5.24086 -1.88362
1.8485 5.25092 -1.88562
1.83436 5.23799 -1.87962
1.82137 5.25203 -1.88262
1.80532 5.2601 -1.88361
1.7852 5.25519 -1.87962
1.76713 5.25926 -1.87861
1.74598 5.25036 -1.87362
1.73198 5.26541 -1.87661
1.72293 5.26445 -1.87561
1.70586 5.26853 -1.87461
1.68267 5.25464 -1.86762
1.66664 5.2637 -1.86862
1.65058 5.26877 -1.86861
1.62842 5.25988 -1.86262
1.6144 5.26994 -1.86461
1.60128 5.259 -1.85962
1.58217 5.25709 -1.85662
1.56407 5.25618 -1.85462
1.54701 5.26125 -1.85462
1.52175 5.23738 -1.84464
1.50877 5.25344 -1.84863
1.48353 5.23356 -1.83864
1.47755 5.24259 -1.84164
1.46149 5.24767 -1.84164
1.44134 5.23976 -1.83664
1.42633 5.25183 -1.83963
1.4072 5.24693 -1.83564
1.39217 5.256 -1.83763
1.3751 5.26008 -1.83763
1.36707 5.26212 -1.83763
1.34693 5.25623 -1.83364
1.33395 5.27129 -1.83763
1.31689 5.27737 -1.83763
1.29981 5.27946 -1.83763
1.28274 5.28254 -1.83662
1.26463 5.28064 -1.83463
1.25559 5.28168 -1.83363
1.23954 5.28777 -1.83462
1.22245 5.28786 -1.83363
1.20537 5.28994 -1.83263
1.19036 5.30102 -1.83562
1.17123 5.29612 -1.83162
1.15517 5.30121 -1.83262
1.14509 5.29626 -1.82963
1.13217 5.32033 -1.83761
1.11715 5.33141 -1.83961
1.09698 5.32052 -1.83461
1.07989 5.32061 -1.83362
1.06488 5.3317 -1.83561
1.04677 5.3288 -1.83361
1.03877 5.33684 -1.83561
1.01754 5.31796 -1.82762
1.0015 5.32505 -1.82962
0.990652 5.35811 -1.8396
0.971489 5.34822 -1.83561
0.954405 5.34932 -1.83461
0.937348 5.35442 -1.83561
0.928275 5.35047 -1.83361
0.911204 5.35357 -1.83361
0.895164 5.36066 -1.83461
0.879132 5.36875 -1.8366
0.861037 5.36886 -1.83561
0.845019 5.37895 -1.8376
0.825826 5.36507 -1.83161
0.819914 5.3831 -1.8376
0.800734 5.37122 -1.83261
0.783684 5.37732 -1.83361
0.767627 5.38142 -1.83461
0.750584 5.38852 -1.8356
0.732415 5.37764 -1.83161
0.715379 5.38574 -1.83361
0.708404 5.39478 -1.83561
0.691342 5.39889 -1.8366
0.673185 5.39 -1.83261
0.658238 5.4091 -1.8386
0.643278 5.4262 -1.84459
0.625135 5.41931 -1.8406
0.609115 5.42841 -1.8436
0.600067 5.42847 -1.8426
0.583015 5.43358 -1.84459
0.564899 5.4307 -1.8426
0.547796 5.42881 -1.8406
0.53182 5.44391 -1.84559
0.512554 5.42104 -1.83661
0.496608 5.44014 -1.8426
0.486461 5.42721 -1.83761
0.471537 5.44831 -1.8446
0.454448 5.44843 -1.8446
0.43631 5.44255 -1.84161
0.418171 5.43667 -1.83862
0.400024 5.42979 -1.83562
0.390932 5.42385 -1.83363
0.37388 5.42897 -1.83463
0.357902 5.44308 -1.83962
0.341917 5.45619 -1.84361
0.32265 5.43432 -1.83563
0.306688 5.45043 -1.84062
0.289599 5.45055 -1.83963
0.272557 5.45667 -1.84262
0.263417 5.44474 -1.83763
0.246343 5.44686 -1.83763
0.229371 5.46198 -1.84263
0.212243 5.4571 -1.84063
0.195131 5.45422 -1.83964
0.178121 5.46435 -1.84263
0.161065 5.46847 -1.84463
0.152066 5.47454 -1.84663
0.134881 5.46266 -1.84164
0.117961 5.48379 -1.84863
0.0996907 5.46192 -1.84065
0.0837447 5.47904 -1.84664
0.0667538 5.49117 -1.85064
0.0576587 5.48523 -1.84864
0.0405628 5.48436 -1.84864
0.0235401 5.49249 -1.85064
0.00543113 5.49063 -1.85065
-0.0116566 5.49076 -1.85065
-0.028728 5.49289 -1.85065
-0.0467623 5.50003 -1.85365
-0.0548953 5.48908 -1.84966
-0.0719497 5.49322 -1.85066
-0.0899665 5.50236 -1.85466
-0.107088 5.49849 -1.85266
-0.124269 5.48762 -1.84867
-0.142225 5.50376 -1.85467
-0.159406 5.4929 -1.85068
-0.176417 5.50203 -1.85467
-0.185463 5.5021 -1.85468
-0.202688 5.48624 -1.84869
-0.219862 5.47637 -1.8457
-0.237747 5.50052 -1.85469
-0.254921 5.49065 -1.8507
-0.271965 5.49579 -1.8527
-0.290014 5.50094 -1.8547
-0.298072 5.49901 -1.8547
-0.315239 5.49014 -1.85171
-0.333216 5.50329 -1.85671
-0.350383 5.49443 -1.85372
-0.367479 5.49357 -1.85372
-0.384656 5.48371 -1.85073
-0.393657 5.48879 -1.85273
-0.41079 5.48393 -1.85074
-0.428737 5.50008 -1.85673
-0.444991 5.48121 -1.85075
-0.463002 5.49037 -1.85474
-0.48198 5.50353 -1.85974
-0.498227 5.48566 -1.85375
-0.506304 5.48173 -1.85276
-0.525263 5.4969 -1.85875
-0.540599 5.46902 -1.84878
-0.557686 5.46917 -1.84978
-0.576635 5.48534 -1.85577
-0.592857 5.47047 -1.85079
-0.609981 5.46662 -1.8508
-0.627998 5.47478 -1.85379
-0.635167 5.46084 -1.84881
-0.65324 5.463 -1.85081
-0.671228 5.47416 -1.85481
-0.689272 5.47932 -1.85781
-0.704597 5.45345 -1.84883
-0.724469 5.47763 -1.85882
-0.739748 5.45677 -1.85184
-0.748726 5.46385 -1.85483
-0.766808 5.46501 -1.85584
-0.783016 5.45215 -1.85185
-0.80101 5.46232 -1.85685
-0.821921 5.48252 -1.86484
-0.835262 5.45463 -1.85486
-0.85426 5.46481 -1.85986
-0.863296 5.46589 -1.86086
-0.880392 5.46505 -1.86087
-0.897518 5.46121 -1.86088
-0.916534 5.46938 -1.86488
-0.933649 5.46654 -1.86488
-0.950776 5.4627 -1.86389
-0.959841 5.46078 -1.86389
-0.977861 5.46796 -1.86789
-0.995038 5.45912 -1.86491
-1.01217 5.45428 -1.86491
-1.03118 5.46346 -1.86891
-1.04925 5.46563 -1.87092
-1.06256 5.44175 -1.86294
-1.08157 5.44994 -1.86794
-1.08777 5.43399 -1.86195
-1.10586 5.43417 -1.86296
-1.12295 5.43333 -1.86396
-1.14201 5.43752 -1.86696
-1.16391 5.45774 -1.87596
-1.1791 5.44688 -1.87297
-1.19528 5.43704 -1.86998
-1.2024 5.42911 -1.86799
-1.22146 5.4333 -1.87099
-1.23952 5.43548 -1.873
-1.25663 5.43365 -1.874
-1.27283 5.4228 -1.87102
-1.28995 5.41897 -1.87103
-1.30899 5.42417 -1.87403
-1.31613 5.41524 -1.87204
-1.33423 5.41442 -1.87304
-1.35517 5.42963 -1.88004
-1.37039 5.41578 -1.87606
-1.38752 5.41196 -1.87606
-1.40369 5.40412 -1.87507
-1.41367 5.41022 -1.87807
-1.43083 5.4034 -1.87708
-1.44985 5.41059 -1.88109
-1.46506 5.39875 -1.8781
-1.48027 5.38591 -1.87511
-1.50318 5.40515 -1.88411
-1.51934 5.39731 -1.88212
-1.5355 5.39048 -1.88213
-1.54361 5.38456 -1.88014
-1.56364 5.39077 -1.88414
-1.57882 5.38093 -1.88215
-1.60077 5.39517 -1.88915
-1.61502 5.37932 -1.88517
-1.63216 5.3745 -1.88518
-1.64928 5.37168 -1.88619
-1.65834 5.37078 -1.88619
-1.67741 5.37298 -1.8892
-1.69067 5.35512 -1.88421
-1.71263 5.36836 -1.89121
-1.72883 5.35853 -1.88923
-1.74791 5.35974 -1.89223
-1.76214 5.34589 -1.88825
-1.7799 5.37408 -1.90024
-1.79896 5.37729 -1.90324
-1.80351 5.33134 -1.88828
-1.8216 5.33154 -1.89028
-1.83971 5.32974 -1.89129
-1.86172 5.33798 -1.89729
-1.8769 5.32915 -1.89531
-1.88304 5.31922 -1.89232
-1.90214 5.31943 -1.89532
-1.92023 5.31863 -1.89733
-1.9403 5.32185 -1.90034
-1.9555 5.31102 -1.89835
-1.97847 5.32328 -1.90535
-1.99075 5.30442 -1.90037
-1.99786 5.2985 -1.89938
-2.01595 5.29771 -1.90139
-2.03506 5.29692 -1.9034
-2.04928 5.28408 -1.90041
-2.07519 5.30238 -1.90941
-2.08747 5.28352 -1.90543
-2.10459 5.28072 -1.90644
-2.11269 5.27581 -1.90545
-2.12985 5.27001 -1.90546
-2.15087 5.27625 -1.91046
-2.16899 5.27346 -1.91147
-2.18614 5.26866 -1.91248
-2.19843 5.2498 -1.9075
-2.21848 5.25304 -1.91151
-2.22464 5.24311 -1.90952
-2.24471 5.24534 -1.91253
-2.26672 5.2526 -1.91753
-2.28291 5.24379 -1.91755
-2.29225 5.21991 -1.91057
-2.31816 5.23721 -1.92057
-2.33826 5.23745 -1.92258
-2.34927 5.24058 -1.92558
-2.36543 5.23377 -1.92559
-2.38942 5.24405 -1.9326
-2.40657 5.23826 -1.93261
-2.41983 5.22242 -1.92963
-2.44089 5.22567 -1.93364
-2.4561 5.21486 -1.93265
-2.46419 5.21096 -1.93266
-2.48623 5.21622 -1.93666
-2.49751 5.19837 -1.93268
-2.51564 5.19459 -1.9347
-2.53964 5.20388 -1.9407
-2.54898 5.181 -1.93472
-2.56616 5.17321 -1.93474
-2.58108 5.18439 -1.94074
-2.59138 5.16552 -1.93676
-2.61149 5.16377 -1.93877
-2.63059 5.16301 -1.94178
-2.64188 5.14515 -1.9378
-2.66787 5.15547 -1.9448
-2.69188 5.16276 -1.95181
-2.69116 5.14176 -1.94483
-2.70636 5.13196 -1.94384
-2.72745 5.13222 -1.94785
-2.74754 5.13247 -1.95086
-2.76176 5.12066 -1.94988
-2.77794 5.11286 -1.94989
-2.79314 5.10306 -1.94891
-2.80615 5.10722 -1.95191
-2.82332 5.10044 -1.95293
-2.82873 5.07153 -1.94495
-2.84591 5.06475 -1.94497
-2.86305 5.05997 -1.94698
-2.86454 5.02401 -1.93601
-2.88466 5.02227 -1.93903
-2.89764 5.02843 -1.94303
-2.91875 5.0277 -1.94604
-2.91337 4.98066 -1.93108
-2.92465 4.96382 -1.9271
-2.94475 4.96308 -1.93111
-2.95211 4.94019 -1.92513
-2.96927 4.93441 -1.92615
-2.97835 4.93153 -1.92715
-2.99453 4.92375 -1.92717
-3.00582 4.90691 -1.92419
-3.02201 4.89912 -1.9252
-3.03623 4.88832 -1.92422
-3.04555 4.86845 -1.91924
-3.06762 4.87074 -1.92425
-3.07866 4.87188 -1.92726
-3.09486 4.8631 -1.92728
-3.1022 4.84122 -1.9213
-3.12232 4.83948 -1.92531
-3.13654 4.82868 -1.92433
-3.14685 4.81083 -1.92135
-3.165 4.80608 -1.92337
-3.17409 4.8032 -1.92337
-3.18733 4.79039 -1.92239
-3.20549 4.78563 -1.92441
-3.2197 4.77583 -1.92442
-3.23 4.75799 -1.92145
-3.24718 4.75122 -1.92246
-3.26534 4.74647 -1.92448
-3.27541 4.74461 -1.92549
-3.28569 4.72876 -1.92351
-3.3009 4.71898 -1.92352
-3.31317 4.70515 -1.92154
-3.33035 4.69839 -1.92356
-3.34556 4.68861 -1.92358
-3.36471 4.68487 -1.92559
-3.36494 4.66889 -1.92161
-3.38112 4.66212 -1.92262
-3.39536 4.65033 -1.92164
-3.41056 4.64154 -1.92266
-3.4258 4.63076 -1.92268
-3.44197 4.62399 -1.9237
-3.45227 4.60715 -1.92172
-3.46235 4.60529 -1.92273
-3.47658 4.5945 -1.92274
-3.48688 4.57766 -1.91977
-3.5011 4.56787 -1.91978
-3.52125 4.56415 -1.9238
-3.53252 4.54933 -1.92182
-3.54872 4.54156 -1.92284
-3.55093 4.52861 -1.91885
-3.56417 4.51681 -1.91887
-3.57446 4.50097 -1.91689
-3.60741 4.51441 -1.9279
-3.60786 4.48546 -1.91893
-3.61813 4.47062 -1.91695
-3.62844 4.45379 -1.91497
-3.63656 4.44891 -1.91498
-3.6488 4.4371 -1.915
-3.66895 4.43338 -1.91802
-3.67038 4.40644 -1.91104
-3.68855 4.4007 -1.91306
-3.70378 4.39093 -1.91408
-3.71505 4.37711 -1.9131
-3.72118 4.37021 -1.91211
-3.72557 4.3473 -1.90714
-3.74671 4.34461 -1.91115
-3.76193 4.33484 -1.91117
-3.76828 4.31496 -1.9072
-3.77661 4.29711 -1.90522
-3.81055 4.31057 -1.91623
-3.79105 4.27335 -1.90125
-3.80332 4.26054 -1.90127
-3.8294 4.26291 -1.90729
-3.83182 4.23799 -1.90132
-3.84604 4.22821 -1.90234
-3.8583 4.2154 -1.90136
-3.86761 4.19956 -1.89938
-3.87967 4.19874 -1.90239
-3.8939 4.18896 -1.90341
-3.89334 4.162 -1.89543
-3.90859 4.15124 -1.89645
-3.92971 4.14955 -1.90147
-3.9272 4.11956 -1.8925
-3.9434 4.11181 -1.89452
-3.95547 4.11099 -1.89753
-3.95689 4.08605 -1.89055
-3.97015 4.07426 -1.89058
-3.99425 4.07461 -1.89759
-3.98875 4.04359 -1.88762
-4.01187 4.04293 -1.89264
-4.03006 4.03621 -1.89566
-4.02238 4.01513 -1.88867
-4.03268 4.00031 -1.8867
-4.05187 3.9946 -1.89072
-4.0592 3.97675 -1.88774
-4.07148 3.96395 -1.88776
-4.0867 3.95519 -1.88878
-4.09107 3.9343 -1.88481
-4.10709 3.93753 -1.88981
-4.1075 3.91358 -1.88384
-4.11583 3.89674 -1.88186
-4.138 3.89307 -1.88688
-4.15124 3.88229 -1.8869
-4.15957 3.86545 -1.88493
-4.15088 3.84536 -1.87794
-4.16711 3.83662 -1.87996
-4.17642 3.82079 -1.87899
-4.17783 3.79786 -1.87301
-4.19307 3.7881 -1.87503
-4.2083 3.77935 -1.87706
-4.21365 3.76047 -1.87308
-4.23384 3.75479 -1.8771
-4.23307 3.7418 -1.87411
-4.24039 3.72594 -1.87214
-4.25267 3.71316 -1.87216
-4.26692 3.70239 -1.87318
-4.27228 3.68352 -1.87021
-4.28061 3.66768 -1.86823
-4.29388 3.6559 -1.86925
-4.30496 3.65408 -1.87226
-4.30735 3.63316 -1.86729
-4.32458 3.62444 -1.87031
-4.3329 3.6086 -1.86834
-4.33628 3.5887 -1.86436
-4.35152 3.57895 -1.86638
-4.35569 3.57103 -1.86639
-4.35806 3.55111 -1.86242
-4.3753 3.5424 -1.86444
-4.38362 3.52656 -1.86347
-4.40086 3.51785 -1.86649
-4.40523 3.49896 -1.86251
-4.40958 3.48107 -1.86054
-4.41276 3.47214 -1.85855
-4.43395 3.46647 -1.86357
-4.44228 3.45064 -1.8626
-4.44466 3.43073 -1.85862
-4.46092 3.421 -1.86065
-4.46428 3.4021 -1.85767
-4.48747 3.39747 -1.86269
-4.48766 3.38749 -1.86071
-4.48212 3.36147 -1.85373
-4.51124 3.36192 -1.86175
-4.51463 3.34203 -1.85878
-4.51404 3.32007 -1.8538
-4.53426 3.3134 -1.85783
-4.55248 3.3057 -1.86085
-4.54475 3.28963 -1.85586
-4.55309 3.2738 -1.85489
-4.5733 3.26713 -1.85891
-4.57469 3.2472 -1.85494
-4.57511 3.22527 -1.85096
-4.59434 3.21759 -1.85499
-4.59374 3.19663 -1.85001
-4.61278 3.19892 -1.85603
-4.60921 3.17593 -1.85005
-4.62348 3.16518 -1.85207
-4.63479 3.1514 -1.8531
-4.64709 3.13862 -1.85312
-4.64947 3.11971 -1.85015
-4.6588 3.1049 -1.85017
-4.66396 3.098 -1.85019
-4.6812 3.08929 -1.85321
-4.68952 3.07447 -1.85324
-4.68598 3.05048 -1.84726
-4.70124 3.04074 -1.84929
-4.71256 3.02696 -1.85031
-4.7189 3.01111 -1.84934
-4.72407 3.00321 -1.84935
-4.7324 2.98839 -1.84838
-4.74669 2.97665 -1.8504
-4.75304 2.96079 -1.84943
-4.75444 2.94087 -1.84545
-4.77168 2.93217 -1.84948
-4.77606 2.91429 -1.8475
-4.77428 2.9033 -1.84452
-4.7965 2.89667 -1.84954
-4.78998 2.87164 -1.84257
-4.80624 2.86193 -1.8466
-4.82051 2.85119 -1.84862
-4.83282 2.83842 -1.84965
-4.82233 2.81134 -1.84167
-4.84633 2.8157 -1.84969
-4.84871 2.7978 -1.84771
-4.85111 2.77889 -1.84474
-4.85252 2.75898 -1.84076
-4.8678 2.74825 -1.84379
-4.87911 2.73547 -1.84482
-4.88943 2.72168 -1.84584
-4.89957 2.71686 -1.84786
-4.89996 2.69793 -1.84488
-4.91921 2.68926 -1.84991
-4.91168 2.66522 -1.84293
-4.94285 2.66272 -1.85197
-4.9254 2.63354 -1.84099
-4.93453 2.6287 -1.843
-4.94685 2.61594 -1.84503
-4.96114 2.60421 -1.84806
-4.95956 2.58424 -1.84308
-4.9828 2.57664 -1.85011
-4.9693 2.55051 -1.84113
-4.98461 2.5388 -1.84316
-5.0136 2.54425 -1.85418
-4.98819 2.51194 -1.8402
-4.99754 2.49714 -1.84123
-5.02375 2.49158 -1.84826
-5.0192 2.46958 -1.84328
-5.02159 2.45168 -1.84131
-5.03987 2.44201 -1.84534
-5.05419 2.42929 -1.84837
-5.04941 2.41825 -1.84438
-5.06572 2.40655 -1.84841
-5.05322 2.38143 -1.83943
-5.07051 2.37075 -1.84346
-5.07687 2.35491 -1.84349
-5.09318 2.34321 -1.84652
-5.08465 2.32015 -1.84054
-5.12458 2.32977 -1.85456
-5.10314 2.30052 -1.84358
-5.12937 2.29397 -1.85062
-5.12085 2.27091 -1.84464
-5.12124 2.25298 -1.84167
-5.09783 2.22271 -1.82969
-5.15168 2.23753 -1.84971
-5.00732 -2.05105 -1.86715
-5.03412 -2.08037 -1.8801
-4.98931 -2.08163 -1.86515
-5.00417 -2.10578 -1.87312
-5.01009 -2.12679 -1.8781
-4.99512 -2.13949 -1.87511
-4.98512 -2.15427 -1.87311
-4.97813 -2.16113 -1.87211
-4.992 -2.18526 -1.88008
-4.97205 -2.19589 -1.8751
-4.96802 -2.21375 -1.87609
-4.97195 -2.23374 -1.88007
-4.953 -2.24439 -1.87508
-4.96689 -2.26055 -1.88206
-4.95094 -2.27225 -1.87907
-4.94492 -2.28808 -1.87907
-4.93095 -2.30081 -1.87607
-4.93587 -2.3228 -1.88105
-4.93383 -2.3407 -1.88305
-4.91389 -2.35133 -1.87806
-4.92083 -2.3634 -1.88205
-4.92077 -2.38332 -1.88503
-4.89488 -2.38987 -1.87706
-4.90576 -2.41496 -1.88503
-4.89379 -2.42771 -1.88304
-4.8838 -2.4425 -1.88204
-4.88375 -2.46242 -1.88503
-4.88273 -2.47137 -1.88602
-4.87075 -2.48512 -1.88403
-4.86574 -2.50198 -1.88502
-4.85476 -2.51575 -1.88402
-4.84378 -2.53052 -1.88303
-4.84671 -2.55049 -1.88701
-4.83673 -2.56527 -1.88601
-4.84167 -2.57731 -1.89
-4.83963 -2.59621 -1.89199
-4.80879 -2.59969 -1.88302
-4.83059 -2.63094 -1.89498
-4.81266 -2.64161 -1.89099
-4.80467 -2.65742 -1.89099
-4.80164 -2.67531 -1.89299
-4.79069 -2.67912 -1.89
-4.79759 -2.70314 -1.89597
-4.77768 -2.71179 -1.89199
-4.76274 -2.72351 -1.889
-4.76865 -2.74752 -1.89498
-4.76066 -2.76234 -1.89498
-4.75167 -2.77814 -1.89498
-4.75264 -2.78812 -1.89697
-4.7377 -2.79984 -1.89398
-4.73368 -2.81871 -1.89598
-4.74256 -2.84376 -1.90395
-4.7177 -2.84934 -1.89698
-4.70773 -2.86413 -1.89598
-4.70671 -2.87309 -1.89797
-4.71063 -2.89607 -1.90296
-4.69966 -2.91085 -1.90196
-4.68672 -2.9226 -1.89997
-4.67873 -2.93842 -1.90097
-4.68563 -2.96345 -1.90794
-4.66077 -2.96903 -1.90097
-4.66273 -2.98002 -1.90396
-4.66169 -2.99994 -1.90695
-4.64775 -3.01268 -1.90496
-4.63481 -3.02543 -1.90396
-4.63873 -3.04841 -1.90895
-4.61487 -3.05402 -1.90297
-4.61284 -3.07392 -1.90596
-4.60885 -3.08183 -1.90596
-4.59293 -3.09254 -1.90397
-4.58594 -3.10938 -1.90497
-4.59382 -3.13542 -1.91295
-4.56204 -3.13591 -1.90298
-4.56001 -3.15582 -1.90597
-4.555 -3.17368 -1.90797
-4.54605 -3.17753 -1.90598
-4.54997 -3.20152 -1.91296
-4.53604 -3.21326 -1.90997
-4.52608 -3.22806 -1.90997
-4.52206 -3.24694 -1.91296
-4.52102 -3.26786 -1.91695
-4.49718 -3.27246 -1.91098
-4.49815 -3.28444 -1.91397
-4.50206 -3.30843 -1.91995
-4.47922 -3.31406 -1.91498
-4.46331 -3.32477 -1.91199
-4.48209 -3.35997 -1.92495
-4.4424 -3.35336 -1.91199
-4.45226 -3.38143 -1.92097
-4.4453 -3.3883 -1.91997
-4.42543 -3.39597 -1.91599
-4.40656 -3.40265 -1.91201
-4.39561 -3.41744 -1.91201
-4.37773 -3.42613 -1.90803
-4.36678 -3.43992 -1.90803
-4.37763 -3.47001 -1.918
-4.37364 -3.47793 -1.919
-4.37161 -3.49884 -1.92299
-4.34877 -3.50446 -1.91702
-4.40121 -3.56711 -1.94592
-4.45761 -3.63481 -1.97682
-4.4219 -3.62926 -1.96487
-4.38028 -3.60767 -1.94892
-4.48017 -3.73389 -2.00474
-4.4316 -3.71917 -1.98781
-4.35135 -3.67704 -1.95592
-4.29189 -3.65218 -1.934
-4.39281 -3.75847 -1.98583
-4.38585 -3.76434 -1.98483
-4.30759 -3.72224 -1.95394
-4.26003 -3.70654 -1.93701
-4.33816 -3.79552 -1.97887
-4.37076 -3.8469 -1.99981
-4.30044 -3.8109 -1.9729
-4.23803 -3.78201 -1.94899
-4.30925 -3.85493 -1.98487
-4.3458 -3.91135 -2.0078
-4.28142 -3.87944 -1.98289
-4.20815 -3.83941 -1.95399
-4.16654 -3.82681 -1.94005
-4.30201 -3.97053 -2.00982
-4.24952 -3.94878 -1.99189
-4.16837 -3.88868 -1.95501
-4.11688 -3.86595 -1.93608
-4.18606 -3.9528 -1.97496
-4.1672 -3.9605 -1.97198
-4.11967 -3.94182 -1.95504
-4.03852 -3.8907 -1.92116
-4.00979 -3.88827 -1.91319
-4.00383 -3.89516 -1.9132
-4.00278 -3.9181 -1.91919
-3.96516 -3.90655 -1.90624
-3.95422 -3.92135 -1.90624
-3.9423 -3.93414 -1.90625
-3.92742 -3.9439 -1.90526
-3.90957 -3.95161 -1.90228
-3.9046 -3.95852 -1.90328
-3.88675 -3.96624 -1.90029
-3.87187 -3.97599 -1.89931
-3.85699 -3.98575 -1.89832
-3.84113 -3.99449 -1.89633
-3.82822 -4.00727 -1.89634
-3.81927 -4.02211 -1.89734
-3.80837 -4.02394 -1.89535
-3.78164 -4.02155 -1.88839
-3.76677 -4.0313 -1.8864
-3.75584 -4.04511 -1.8874
-3.73899 -4.05285 -1.88542
-3.72115 -4.05957 -1.88244
-3.72507 -4.07659 -1.88842
-3.7023 -4.07725 -1.88245
-3.6973 -4.09814 -1.88644
-3.68243 -4.1069 -1.88546
-3.65867 -4.10655 -1.87948
-3.64578 -4.11834 -1.87949
-3.63387 -4.13114 -1.8795
-3.61903 -4.12793 -1.87552
-3.61107 -4.14478 -1.87752
-3.59423 -4.15252 -1.87554
-3.58035 -4.1623 -1.87555
-3.55759 -4.16296 -1.86957
-3.55555 -4.18689 -1.87556
-3.53082 -4.18453 -1.86959
-3.52783 -4.19447 -1.87159
-3.51 -4.2002 -1.86861
-3.49711 -4.21199 -1.86862
-3.47435 -4.21166 -1.86364
-3.4733 -4.23661 -1.86963
-3.45055 -4.23728 -1.86466
-3.43371 -4.24402 -1.86268
-3.42875 -4.25094 -1.86368
-3.41981 -4.26778 -1.86568
-3.39607 -4.26544 -1.85971
-3.39206 -4.28835 -1.8657
-3.36734 -4.285 -1.85873
-3.36234 -4.30589 -1.86373
-3.33269 -4.29648 -1.85377
-3.33956 -4.31954 -1.86175
-3.32471 -4.32732 -1.86076
-3.31084 -4.33811 -1.86077
-3.28415 -4.33273 -1.8528
-3.28901 -4.36476 -1.86378
-3.24754 -4.3402 -1.84684
-3.23959 -4.35806 -1.85084
-3.24448 -4.3781 -1.85683
-3.20992 -4.36164 -1.84488
-3.20394 -4.38152 -1.84887
-3.20387 -4.40948 -1.85686
-3.17719 -4.40412 -1.84989
-3.15249 -4.39878 -1.84293
-3.15044 -4.42471 -1.84991
-3.13563 -4.41851 -1.84494
-3.12275 -4.43032 -1.84594
-3.10199 -4.43003 -1.84097
-3.09305 -4.44788 -1.84497
-3.07722 -4.45465 -1.84299
-3.07321 -4.47856 -1.84898
-3.05347 -4.4653 -1.84101
-3.03863 -4.47309 -1.84102
-3.01394 -4.46775 -1.83405
-3.01189 -4.49469 -1.84104
-2.97047 -4.46416 -1.82411
-2.97925 -4.50623 -1.83807
-2.95948 -4.50895 -1.8341
-2.95059 -4.50983 -1.83311
-2.94362 -4.53071 -1.8381
-2.92779 -4.53749 -1.83712
-2.90606 -4.53619 -1.83215
-2.90401 -4.56213 -1.83913
-2.88523 -4.56587 -1.83715
-2.87039 -4.57366 -1.83617
-2.86346 -4.57856 -1.83617
-2.84075 -4.57526 -1.8302
-2.8328 -4.59313 -1.8342
-2.82288 -4.60898 -1.83721
-2.79526 -4.59762 -1.82824
-2.78534 -4.61347 -1.83125
-2.77738 -4.63135 -1.83525
-2.77143 -4.63926 -1.83725
-2.75758 -4.64806 -1.83726
-2.73979 -4.65282 -1.83428
-2.72201 -4.65558 -1.8323
-2.71208 -4.67243 -1.8353
-2.69823 -4.68124 -1.83532
-2.69524 -4.69319 -1.83931
-2.6637 -4.67279 -1.82636
-2.65672 -4.69468 -1.83236
-2.64091 -4.70146 -1.83137
-2.62509 -4.70725 -1.83039
-2.62008 -4.73216 -1.83738
-2.59542 -4.72385 -1.83041
-2.57279 -4.70057 -1.81845
-2.56385 -4.71944 -1.82245
-2.54803 -4.72623 -1.82247
-2.52437 -4.71792 -1.8155
-2.51249 -4.73076 -1.81751
-2.49864 -4.74057 -1.81852
-2.48669 -4.77139 -1.82552
-2.46696 -4.77114 -1.82254
-2.45998 -4.79203 -1.82754
-2.4422 -4.7958 -1.82556
-2.42737 -4.80361 -1.82557
-2.41353 -4.81242 -1.82658
-2.39183 -4.80915 -1.82161
-2.38589 -4.81507 -1.82262
-2.37106 -4.82288 -1.82263
-2.35623 -4.83068 -1.82264
-2.33749 -4.83144 -1.81966
-2.32756 -4.84931 -1.82367
-2.30783 -4.84706 -1.81969
-2.293 -4.85587 -1.8207
-2.28216 -4.85273 -1.81772
-2.27126 -4.86659 -1.82072
-2.25252 -4.86735 -1.81775
-2.23867 -4.87718 -1.81876
-2.22189 -4.88096 -1.81677
-2.2051 -4.88675 -1.81679
-2.19224 -4.89659 -1.8178
-2.18238 -4.89547 -1.81581
-2.17146 -4.91332 -1.81982
-2.14979 -4.90506 -1.81385
-2.13888 -4.92192 -1.81785
-2.11917 -4.91868 -1.81388
-2.10337 -4.92448 -1.81289
-2.0896 -4.91531 -1.80791
-2.08944 -4.9553 -1.82089
-2.06289 -4.93598 -1.81093
-2.051 -4.95183 -1.81494
-2.02934 -4.94257 -1.80797
-2.02136 -4.96646 -1.81497
-2.0036 -4.96825 -1.81299
-2.00547 -4.99426 -1.82197
-1.97307 -4.96089 -1.80603
-1.96118 -4.97574 -1.81003
-1.9444 -4.97854 -1.80805
-1.93349 -4.9954 -1.81305
-1.91184 -4.98615 -1.80608
-1.90092 -5.00501 -1.81109
-1.89205 -5.00491 -1.8101
-1.87722 -5.01273 -1.81011
-1.86241 -5.02055 -1.81112
-1.84564 -5.02335 -1.81014
-1.82301 -5.01209 -1.80318
-1.81599 -5.041 -1.81217
-1.8002 -5.04482 -1.81118
-1.78548 -5.03065 -1.80421
-1.77457 -5.04652 -1.80821
-1.75585 -5.0453 -1.80624
-1.74298 -5.05815 -1.80824
-1.72426 -5.05693 -1.80627
-1.71236 -5.07179 -1.80927
-1.69364 -5.07058 -1.80629
-1.69354 -5.09257 -1.81428
-1.66996 -5.07731 -1.80632
-1.6532 -5.07911 -1.80434
-1.63546 -5.07891 -1.80236
-1.62453 -5.09879 -1.80836
-1.60485 -5.09356 -1.80439
-1.60279 -5.11254 -1.81038
-1.57727 -5.09025 -1.80042
-1.57023 -5.12117 -1.80941
-1.54764 -5.10692 -1.80245
-1.52895 -5.10071 -1.79847
-1.52092 -5.13062 -1.80746
-1.49737 -5.11136 -1.7985
-1.49433 -5.12933 -1.80449
-1.47562 -5.12612 -1.80052
-1.46081 -5.13396 -1.80253
-1.43823 -5.11771 -1.79457
-1.43311 -5.15665 -1.80655
-1.40375 -5.11633 -1.79061
-1.39475 -5.14423 -1.7986
-1.38493 -5.13912 -1.79662
-1.36912 -5.14795 -1.79763
-1.35141 -5.14376 -1.79465
-1.33948 -5.16463 -1.80066
-1.31694 -5.14339 -1.79069
-1.30115 -5.14922 -1.79171
-1.29309 -5.18314 -1.8027
-1.2765 -5.15396 -1.79074
-1.2559 -5.13874 -1.78377
-1.24589 -5.16863 -1.79276
-1.23109 -5.17448 -1.79378
-1.21337 -5.17329 -1.7918
-1.20145 -5.19217 -1.7968
-1.17891 -5.16993 -1.78784
-1.17584 -5.1919 -1.79483
-1.16004 -5.19973 -1.79684
-1.14233 -5.19655 -1.79386
-1.12366 -5.18935 -1.78989
-1.11077 -5.20622 -1.7949
-1.09017 -5.19201 -1.78793
-1.07728 -5.20788 -1.79293
-1.06555 -5.19176 -1.78596
-1.05168 -5.20662 -1.78996
-1.03013 -5.18739 -1.782
-1.02012 -5.2153 -1.79099
-1.00048 -5.2061 -1.78602
-0.980866 -5.1929 -1.78005
-0.973957 -5.19583 -1.78006
-0.958153 -5.20467 -1.78207
-0.940462 -5.19949 -1.7791
-0.930436 -5.2304 -1.78909
-0.909861 -5.21319 -1.78212
-0.894069 -5.22003 -1.78314
-0.88308 -5.24693 -1.79213
-0.869452 -5.22079 -1.78216
-0.855574 -5.23666 -1.78717
-0.838845 -5.23549 -1.78519
-0.821174 -5.22732 -1.78121
-0.804427 -5.22916 -1.78023
-0.785785 -5.21897 -1.77626
-0.772873 -5.23785 -1.78226
-0.762112 -5.22675 -1.77728
-0.749199 -5.24563 -1.78328
-0.730534 -5.23945 -1.78031
-0.715706 -5.24931 -1.78232
-0.698967 -5.25015 -1.78234
-0.683192 -5.254 -1.78235
-0.666466 -5.25284 -1.78137
-0.658585 -5.25377 -1.78138
-0.642805 -5.25862 -1.7824
-0.625121 -5.25345 -1.77942
-0.611244 -5.26833 -1.78443
-0.589818 -5.23312 -1.77047
-0.574006 -5.24298 -1.77348
-0.567071 -5.24991 -1.77549
-0.548457 -5.23674 -1.77052
-0.53174 -5.23459 -1.76854
-0.517836 -5.25346 -1.77454
-0.50205 -5.25932 -1.77655
-0.484382 -5.25216 -1.77258
-0.47328 -5.29307 -1.78756
-0.461626 -5.26996 -1.77859
-0.444006 -5.2558 -1.77262
-0.428247 -5.25766 -1.77264
-0.411531 -5.25551 -1.77166
-0.395724 -5.26437 -1.77467
-0.379936 -5.27023 -1.77568
-0.363235 -5.26608 -1.7737
-0.353457 -5.25699 -1.77072
-0.336756 -5.25285 -1.76874
-0.321932 -5.26172 -1.77075
-0.306067 -5.27858 -1.77676
-0.288482 -5.26043 -1.76979
-0.272716 -5.26329 -1.7708
-0.257812 -5.28317 -1.77681
-0.248102 -5.26508 -1.77083
-0.232248 -5.27995 -1.77484
-0.214667 -5.2618 -1.76887
-0.199761 -5.28167 -1.77487
-0.182225 -5.25752 -1.7669
-0.167288 -5.2814 -1.77491
-0.148836 -5.24824 -1.76295
-0.14183 -5.26418 -1.76794
-0.12511 -5.26304 -1.76696
-0.109366 -5.26291 -1.76698
-0.0926165 -5.26577 -1.768
-0.0759574 -5.25663 -1.76502
-0.0602369 -5.2535 -1.76304
-0.0513665 -5.25543 -1.76405
-0.0355627 -5.26331 -1.76706
-0.0189888 -5.24317 -1.75909
-0.00312333 -5.25904 -1.7651
0.0136192 -5.26091 -1.76511
0.0293387 -5.25778 -1.76413
0.0460498 -5.25565 -1.76315
0.0539521 -5.25959 -1.76516
0.0705927 -5.24845 -1.76018
0.0864851 -5.26733 -1.76719
0.103077 -5.2502 -1.76121
0.119138 -5.29008 -1.7752
0.135666 -5.26495 -1.76724
0.151408 -5.26482 -1.76726
0.159401 -5.27977 -1.77225
0.176039 -5.26863 -1.76828
0.192791 -5.27151 -1.76929
0.208485 -5.26539 -1.76731
0.225294 -5.27526 -1.77132
0.240988 -5.26914 -1.76935
0.257773 -5.27602 -1.77136
0.265504 -5.25895 -1.76538
0.28238 -5.27683 -1.77238
0.29799 -5.26071 -1.76741
0.313607 -5.24559 -1.76144
0.330451 -5.25947 -1.76744
0.347221 -5.26435 -1.76946
0.355059 -5.26029 -1.76747
0.370751 -5.25417 -1.76549
0.387521 -5.25905 -1.7675
0.403204 -5.25194 -1.76552
0.421053 -5.26781 -1.77153
0.43564 -5.24771 -1.76556
0.452428 -5.25459 -1.76757
0.461275 -5.25352 -1.76758
0.478116 -5.26641 -1.77259
0.493843 -5.2643 -1.77261
0.511634 -5.27317 -1.77562
0.528416 -5.27906 -1.77863
0.544081 -5.26995 -1.77565
0.558646 -5.24784 -1.76868
0.566464 -5.24179 -1.76669
0.583282 -5.25167 -1.7707
0.598991 -5.24756 -1.76972
0.617912 -5.27244 -1.77972
0.615201 -5.08143 -1.71185
0.642791 -5.19426 -1.7528
0.660657 -5.21114 -1.75881
2.67313 -4.76987 -1.83077
2.69109 -4.78579 -1.83877
2.70981 -4.78374 -1.84178
2.7225 -4.77272 -1.8398
2.73214 -4.75471 -1.83582
2.74887 -4.75067 -1.83783
2.77769 -4.76657 -1.84884
2.77927 -4.7356 -1.83886
2.79218 -4.74156 -1.84286
2.80384 -4.72755 -1.84088
2.82963 -4.73746 -1.84889
2.84432 -4.72843 -1.8489
2.85397 -4.71143 -1.84492
2.86766 -4.70141 -1.84494
2.88641 -4.70036 -1.84795
2.8983 -4.70432 -1.85095
2.90796 -4.68732 -1.84797
2.92769 -4.68627 -1.85098
2.93633 -4.66728 -1.847
2.95606 -4.66623 -1.85101
2.97381 -4.66419 -1.85302
2.98346 -4.64719 -1.85004
2.99132 -4.64418 -1.85105
3.01307 -4.64612 -1.85506
3.01769 -4.62214 -1.84908
3.03542 -4.61811 -1.85109
3.05313 -4.61307 -1.8531
3.06179 -4.59608 -1.85012
3.07368 -4.59905 -1.85312
3.08434 -4.58305 -1.85114
3.09603 -4.57104 -1.84915
3.11777 -4.57199 -1.85417
3.12845 -4.55799 -1.85218
3.14718 -4.55495 -1.85519
3.15986 -4.54294 -1.85421
3.16571 -4.53694 -1.85321
3.18342 -4.53191 -1.85523
3.20217 -4.52987 -1.85924
3.20377 -4.50192 -1.85126
3.21144 -4.48394 -1.84727
3.2221 -4.46894 -1.84529
3.2348 -4.45794 -1.8453
3.2497 -4.46389 -1.8493
3.26642 -4.45787 -1.85132
3.28515 -4.45484 -1.85433
3.30691 -4.45679 -1.85934
3.31455 -4.43681 -1.85536
3.34437 -4.44973 -1.86536
3.33592 -4.40883 -1.85238
3.3488 -4.4118 -1.85539
3.38162 -4.4267 -1.8674
3.38225 -4.39976 -1.85941
3.40399 -4.39971 -1.86443
3.40762 -4.37576 -1.85844
3.42536 -4.37173 -1.86145
3.42617 -4.35876 -1.85746
3.42579 -4.33082 -1.84948
3.45558 -4.34074 -1.85949
3.47231 -4.33472 -1.8615
3.48199 -4.31974 -1.85951
3.49568 -4.30874 -1.85952
3.50839 -4.29774 -1.85954
3.51825 -4.29573 -1.86054
3.53496 -4.28872 -1.86256
3.54264 -4.27174 -1.85957
3.56439 -4.27171 -1.86458
3.56201 -4.24178 -1.85559
3.57872 -4.23477 -1.85761
3.60549 -4.23971 -1.86562
3.59224 -4.2108 -1.85463
3.60795 -4.20279 -1.85564
3.61361 -4.18283 -1.85165
3.63235 -4.17881 -1.85566
3.64003 -4.16184 -1.85268
3.66882 -4.16978 -1.86169
3.6646 -4.15083 -1.85569
3.6733 -4.13585 -1.85371
3.68599 -4.12386 -1.85372
3.70976 -4.12583 -1.85973
3.7134 -4.10288 -1.85374
3.72711 -4.09288 -1.85475
3.74283 -4.08488 -1.85677
3.74969 -4.07988 -1.85677
3.77644 -4.08284 -1.86378
3.80423 -4.08879 -1.87279
3.79182 -4.0499 -1.85981
3.81057 -4.04589 -1.86282
3.82326 -4.03391 -1.86283
3.85104 -4.03886 -1.87084
3.84182 -4.01593 -1.86285
3.86457 -4.0149 -1.86886
3.87626 -4.00192 -1.86787
3.89299 -3.99492 -1.87088
3.90068 -3.97796 -1.86789
3.90635 -3.959 -1.8639
3.92107 -3.95001 -1.86591
3.92793 -3.94502 -1.86592
3.9356 -3.92706 -1.86393
3.96841 -3.93699 -1.87494
3.96304 -3.90708 -1.86595
3.97374 -3.89311 -1.86496
3.99548 -3.8901 -1.86997
3.99414 -3.86517 -1.86299
4.01004 -3.86914 -1.86899
4.01471 -3.84919 -1.864
4.04549 -3.85514 -1.87401
4.04315 -3.82922 -1.86702
4.05485 -3.81625 -1.86703
4.05151 -3.78933 -1.86005
4.06338 -3.78832 -1.86205
4.08613 -3.78631 -1.86806
4.08278 -3.75939 -1.86007
4.11759 -3.76933 -1.87208
4.10019 -3.72947 -1.85809
4.1109 -3.7165 -1.8581
4.12862 -3.7085 -1.86011
4.13548 -3.70351 -1.86112
4.16326 -3.70648 -1.86913
4.16494 -3.68455 -1.86414
4.18167 -3.67656 -1.86715
4.18334 -3.65463 -1.86216
4.20711 -3.65361 -1.86917
4.20476 -3.62769 -1.86218
4.21463 -3.6247 -1.86418
4.24942 -3.63264 -1.87519
4.24408 -3.60474 -1.8672
4.25781 -3.59476 -1.86921
4.26851 -3.5808 -1.86922
4.27923 -3.56783 -1.86923
4.28191 -3.5469 -1.86424
4.2978 -3.54888 -1.86925
4.30852 -3.53592 -1.86926
4.31322 -3.51797 -1.86627
4.32594 -3.50601 -1.86727
4.34267 -3.49703 -1.87028
4.33433 -3.46813 -1.86129
4.36913 -3.47508 -1.8733
4.34991 -3.44819 -1.86131
4.36765 -3.4402 -1.86432
4.38137 -3.42923 -1.86633
4.39009 -3.41428 -1.86533
4.39077 -3.39236 -1.86034
4.41452 -3.38935 -1.86635
4.41638 -3.38038 -1.86536
4.43311 -3.37141 -1.86837
4.42878 -3.3455 -1.86138
4.44954 -3.34051 -1.86638
4.45524 -3.32257 -1.86439
4.46395 -3.30762 -1.8634
4.47067 -3.29167 -1.86241
4.49258 -3.29764 -1.86941
4.49227 -3.27572 -1.86442
4.51202 -3.26973 -1.86943
4.50469 -3.24184 -1.86144
4.52144 -3.23386 -1.86445
4.52214 -3.21294 -1.86046
4.5489 -3.21094 -1.86846
4.54373 -3.19599 -1.86347
4.55947 -3.18702 -1.86648
4.56418 -3.16909 -1.86448
4.58794 -3.16509 -1.87049
4.57961 -3.1372 -1.8625
4.58934 -3.12325 -1.86251
4.59507 -3.10731 -1.86052
4.62198 -3.11527 -1.87052
4.61065 -3.08639 -1.86153
4.6334 -3.0804 -1.86654
4.62509 -3.05451 -1.85954
4.64685 -3.04852 -1.86455
4.64356 -3.02661 -1.85956
4.66445 -3.02959 -1.86656
4.65514 -3.0027 -1.85857
4.68591 -3.00269 -1.86758
4.67961 -2.97779 -1.86059
4.69935 -2.96982 -1.86559
4.70208 -2.95189 -1.8626
4.72582 -2.94591 -1.86961
4.71066 -2.92699 -1.86061
4.73441 -2.92101 -1.86662
4.72611 -2.89512 -1.85962
4.74586 -2.88714 -1.86463
4.75159 -2.87121 -1.86264
4.76533 -2.85925 -1.86465
4.76104 -2.83635 -1.85965
4.77293 -2.83436 -1.86266
4.77263 -2.81344 -1.85866
4.77135 -2.79253 -1.85467
4.78809 -2.78257 -1.85868
4.81688 -2.78057 -1.86668
4.79655 -2.74772 -1.85469
4.79241 -2.73577 -1.85169
4.80716 -2.72481 -1.8547
4.8169 -2.71087 -1.8547
4.82763 -2.69693 -1.85571
4.83436 -2.68099 -1.85472
4.85011 -2.67004 -1.85872
4.85985 -2.6561 -1.85873
4.8527 -2.64216 -1.85473
4.86546 -2.63021 -1.85674
4.8802 -2.61826 -1.85875
4.87191 -2.59437 -1.85275
4.9097 -2.59536 -1.86476
4.8874 -2.5645 -1.85276
4.90315 -2.55354 -1.85577
4.90101 -2.54259 -1.85277
4.92978 -2.53861 -1.86178
4.90448 -2.50576 -1.84878
4.94426 -2.50675 -1.86079
4.92796 -2.47888 -1.85179
4.94372 -2.46793 -1.8548
4.94646 -2.45001 -1.8528
4.95734 -2.44602 -1.85581
4.95107 -2.42412 -1.85081
4.97383 -2.41616 -1.85682
4.95555 -2.38829 -1.84682
4.9733 -2.37734 -1.85083
4.99006 -2.36738 -1.85483
4.97878 -2.3425 -1.84684
4.99066 -2.33852 -1.85084
4.99441 -2.32159 -1.84885
5.00016 -2.30567 -1.84885
5.0049 -2.28875 -1.84785
5.01265 -2.27382 -1.84786
5.0194 -2.25789 -1.84786
5.03316 -2.24595 -1.85087
5.02802 -2.234 -1.84687
5.02376 -2.2131 -1.84288
5.03451 -2.19917 -1.84488
5.03226 -2.18026 -1.84088
5.05302 -2.17031 -1.84689
5.05076 -2.1504 -1.84289
5.07467 -2.15239 -1.8509
5.04839 -2.12254 -1.8379
5.07916 -2.11657 -1.8479
5.0629 -2.09169 -1.83891
5.07465 -2.07775 -1.84091
5.09142 -2.06681 -1.84492
5.09917 -2.05089 -1.84592
5.08303 -2.03496 -1.83792
5.10379 -2.02501 -1.84393
5.10254 -2.0061 -1.84093
5.12031 -1.99516 -1.84593
5.09905 -1.96829 -1.83494
5.12383 -1.96033 -1.84194
5.11557 -1.93844 -1.83694
5.12746 -1.93446 -1.83995
5.11721 -1.91257 -1.83395
5.14598 -1.90461 -1.84295
5.12873 -1.88073 -1.83396
5.1575 -1.87277 -1.84296
5.14025 -1.84889 -1.83396
5.15101 -1.83396 -1.83597
5.13988 -1.82103 -1.83097
5.16166 -1.81108 -1.83697
5.15041 -1.78919 -1.83097
5.16518 -1.77625 -1.83398
5.15993 -1.75636 -1.82998
5.1777 -1.74442 -1.83498
5.16345 -1.72153 -1.82798
5.18335 -1.71954 -1.83399
5.18212 -1.70164 -1.83199
5.18989 -1.68671 -1.83299
5.17964 -1.66483 -1.82699
5.20942 -1.65687 -1.836
5.19818 -1.63598 -1.83
5.21006 -1.63001 -1.834
5.19682 -1.60812 -1.827
5.2066 -1.59419 -1.82901
5.22238 -1.58126 -1.83301
5.21313 -1.56037 -1.82801
5.23191 -1.54843 -1.83301
5.22068 -1.52754 -1.82701
5.23657 -1.52356 -1.83202
5.21633 -1.49969 -1.82302
5.23511 -1.48775 -1.82802
5.23788 -1.47084 -1.82802
5.24765 -1.45592 -1.83002
5.24143 -1.43702 -1.82603
5.2512 -1.4221 -1.82803
5.24709 -1.41215 -1.82603
5.27187 -1.40121 -1.83303
5.25263 -1.37833 -1.82403
5.26542 -1.36441 -1.82803
5.25119 -1.34352 -1.82103
5.27197 -1.33158 -1.82704
5.24585 -1.31566 -1.81704
5.27364 -1.30572 -1.82604
5.29042 -1.29279 -1.83004
5.26519 -1.26892 -1.82004
5.28397 -1.25599 -1.82504
5.27976 -1.23808 -1.82204
5.28553 -1.22117 -1.82305
5.28342 -1.21222 -1.82205
5.29621 -1.1983 -1.82505
5.28198 -1.17741 -1.81805
5.29776 -1.16349 -1.82305
5.29355 -1.14558 -1.82005
5.29033 -1.12768 -1.81705
5.28211 -1.10878 -1.81305
5.306 -1.10481 -1.82205
5.29079 -1.08491 -1.81505
5.31058 -1.07199 -1.82105
5.30237 -1.05309 -1.81705
5.31915 -1.03917 -1.82206
5.30494 -1.01927 -1.81506
5.30973 -1.00336 -1.81606
5.30562 -0.993415 -1.81406
5.31441 -0.978498 -1.81606
5.32419 -0.962586 -1.81906
5.31099 -0.943689 -1.81306
5.32478 -0.928772 -1.81706
5.32357 -0.911866 -1.81506
5.32647 -0.90391 -1.81606
5.32226 -0.886008 -1.81306
5.33204 -0.870097 -1.81606
5.32683 -0.852196 -1.81306
5.33664 -0.837279 -1.81606
5.33342 -0.819378 -1.81406
5.32321 -0.800482 -1.80906
5.33512 -0.794516 -1.81306
5.3269 -0.775621 -1.80906
5.32871 -0.75971 -1.80906
5.3425 -0.743799 -1.81306
5.3463 -0.727888 -1.81406
5.32609 -0.707998 -1.80606
5.33389 -0.692087 -1.80806
5.33579 -0.684132 -1.80906
5.34159 -0.668221 -1.81006
5.33239 -0.650321 -1.80606
5.35319 -0.635406 -1.81306
5.32499 -0.615515 -1.80205
5.33979 -0.6006 -1.80705
5.35259 -0.58469 -1.81105
5.32749 -0.57375 -1.80105
5.34729 -0.558835 -1.80805
5.32809 -0.53994 -1.80105
5.3469 -0.525025 -1.80705
5.3257 -0.50613 -1.79905
5.3445 -0.491215 -1.80505
5.34331 -0.474311 -1.80405
5.33121 -0.464366 -1.79905
5.33402 -0.448456 -1.80005
5.35782 -0.433542 -1.80805
5.33263 -0.414647 -1.79904
5.34544 -0.398738 -1.80304
5.33324 -0.380838 -1.79804
5.35305 -0.365923 -1.80504
5.33996 -0.356974 -1.80004
5.34077 -0.340069 -1.80004
5.33458 -0.323165 -1.79704
5.33539 -0.306261 -1.79703
5.34019 -0.289357 -1.79903
5.33301 -0.272452 -1.79603
5.33292 -0.264497 -1.79603
5.34473 -0.248588 -1.80003
5.33454 -0.230689 -1.79603
5.32735 -0.213785 -1.79303
5.31317 -0.196881 -1.78802
5.33198 -0.180971 -1.79502
5.33079 -0.164067 -1.79402
5.3347 -0.156113 -1.79502
5.31552 -0.139208 -1.78802
5.34634 -0.123299 -1.79902
5.32615 -0.105401 -1.79201
5.32397 -0.0894911 -1.79101
5.31979 -0.0725872 -1.79001
5.34861 -0.0566778 -1.80001
5.31452 -0.0477285 -1.78801
5.32933 -0.0308247 -1.793
5.31815 -0.0139208 -1.789
5.13883 0.0149149 -1.774
5.11574 0.0228695 -1.766
5.10957 0.0387786 -1.76399
5.12838 0.0556823 -1.77099
5.11121 0.070597 -1.76499
5.15003 0.087501 -1.77899
5.11585 0.10341 -1.76699
5.11868 0.119319 -1.76798
5.12659 0.127274 -1.77098
5.09942 0.142188 -1.76098
5.10225 0.158098 -1.76298
5.10907 0.175001 -1.76497
5.10289 0.190911 -1.76297
5.10972 0.20682 -1.76597
5.08855 0.221734 -1.75797
5.12346 0.231679 -1.77196
5.07929 0.245598 -1.75596
5.09313 0.261508 -1.76096
5.08495 0.277417 -1.75796
5.07579 0.292332 -1.75595
5.07661 0.309236 -1.75595
5.09652 0.318186 -1.76395
5.06036 0.331111 -1.75095
5.06819 0.348015 -1.75394
5.07802 0.364919 -1.75794
5.09185 0.381824 -1.76394
5.06069 0.394749 -1.75294
5.06252 0.411653 -1.75393
5.05844 0.418613 -1.75293
5.08627 0.437508 -1.76393
5.03611 0.448443 -1.74593
5.06495 0.467338 -1.75692
5.04078 0.481257 -1.74892
5.04462 0.497168 -1.75092
5.03745 0.513077 -1.74891
5.03638 0.520038 -1.74891
5.03221 0.535947 -1.74791
5.03805 0.552852 -1.7509
5.01789 0.565778 -1.7439
5.02872 0.583678 -1.7489
5.01557 0.597598 -1.74489
5.0264 0.615498 -1.74889
4.99933 0.619474 -1.73989
5.00117 0.635385 -1.74089
5.01201 0.653285 -1.74588
5.02585 0.671185 -1.75188
4.99769 0.683116 -1.74287
4.99354 0.698032 -1.74187
5.02046 0.709967 -1.75187
4.9773 0.719908 -1.73687
4.99115 0.737809 -1.74286
4.98699 0.75372 -1.74286
4.98083 0.768636 -1.74085
4.97468 0.783552 -1.73985
4.96853 0.798468 -1.73785
4.97745 0.808414 -1.74284
4.9693 0.822336 -1.73984
4.96115 0.837252 -1.73784
4.95299 0.852168 -1.73583
4.94684 0.867085 -1.73483
4.9657 0.885982 -1.74282
4.95555 0.899904 -1.73982
4.94647 0.906864 -1.73782
4.93431 0.920786 -1.73381
4.92217 0.933714 -1.73081
4.91901 0.949625 -1.73081
4.92987 0.967528 -1.7358
4.91272 0.980455 -1.7308
4.91057 0.996367 -1.73079
4.9205 1.00631 -1.73579
4.89835 1.01725 -1.72879
4.89921 1.03316 -1.72978
4.89506 1.04908 -1.72978
4.90292 1.06698 -1.73377
4.89377 1.0809 -1.73177
4.90163 1.09881 -1.73576
4.87756 1.10079 -1.72776
4.87041 1.11571 -1.72676
4.87527 1.13262 -1.72975
4.88613 1.15152 -1.73575
4.87199 1.16445 -1.73074
4.86785 1.17937 -1.73074
4.84069 1.18931 -1.72174
4.84963 1.19926 -1.72673
4.84749 1.21517 -1.72673
4.85435 1.23307 -1.73072
4.82321 1.24103 -1.72072
4.83107 1.25993 -1.72571
4.81593 1.27186 -1.72171
4.82187 1.28081 -1.72471
4.82273 1.29772 -1.7267
4.81659 1.31264 -1.7257
4.83545 1.33453 -1.73469
4.82032 1.34646 -1.73068
4.80518 1.3584 -1.72668
4.79704 1.37232 -1.72468
4.80998 1.38426 -1.73067
4.80184 1.39819 -1.72867
4.79471 1.41211 -1.72866
4.79357 1.42903 -1.72966
4.77644 1.43997 -1.72465
4.79131 1.46086 -1.73265
4.80519 1.48175 -1.73964
4.78812 1.48473 -1.73364
4.78298 1.49965 -1.73363
4.77485 1.51358 -1.73263
4.76672 1.52751 -1.73062
4.75959 1.54144 -1.73062
4.74546 1.55337 -1.72661
4.77835 1.58123 -1.7416
4.75727 1.58222 -1.7346
4.74514 1.59516 -1.7316
4.75802 1.61605 -1.73859
4.74189 1.62699 -1.73459
4.72475 1.63794 -1.72958
4.73164 1.65684 -1.73457
4.72451 1.67077 -1.73357
4.74246 1.68569 -1.74256
4.70531 1.68967 -1.72956
4.7192 1.71156 -1.73755
4.69407 1.71852 -1.72955
4.69995 1.73743 -1.73354
4.69083 1.75036 -1.73254
4.69671 1.77026 -1.73753
4.69365 1.77723 -1.73753
4.69853 1.79613 -1.74152
4.6704 1.8021 -1.73252
4.68028 1.823 -1.73851
4.67616 1.83892 -1.7395
4.67905 1.85683 -1.7425
4.64597 1.85185 -1.7305
4.66587 1.87673 -1.74149
4.63973 1.8837 -1.73349
4.66264 1.90957 -1.74448
4.6305 1.91355 -1.73447
4.63639 1.93345 -1.73947
4.62527 1.94539 -1.73746
4.6152 1.95037 -1.73446
4.61209 1.96629 -1.73545
4.60597 1.98022 -1.73545
4.60085 1.99615 -1.73644
4.61376 2.01804 -1.74443
4.58662 2.02401 -1.73543
4.58852 2.04193 -1.73942
4.58346 2.04889 -1.73842
4.58936 2.0678 -1.74341
4.56323 2.07377 -1.73541
4.57713 2.09766 -1.7444
4.55701 2.10562 -1.73839
4.5599 2.12453 -1.74238
4.55484 2.1315 -1.74238
4.55974 2.15141 -1.74637
4.53662 2.15738 -1.73937
4.54652 2.18027 -1.74636
4.51539 2.18226 -1.73736
4.51228 2.19819 -1.73835
4.51018 2.21511 -1.74035
4.53516 2.23601 -1.75234
4.49802 2.23502 -1.73934
4.51393 2.2619 -1.74932
4.47278 2.25891 -1.73533
4.47769 2.27882 -1.74032
4.47358 2.29475 -1.74231
4.46748 2.30968 -1.7423
4.46443 2.31665 -1.7423
4.46633 2.33556 -1.74629
4.46925 2.35448 -1.75128
4.44311 2.35946 -1.74328
4.45203 2.38236 -1.75027
4.43491 2.39032 -1.74627
4.42681 2.40426 -1.74626
4.42276 2.41123 -1.74626
4.42066 2.42816 -1.74825
4.40555 2.43811 -1.74524
4.40145 2.45404 -1.74624
4.39835 2.47097 -1.74823
4.40527 2.49288 -1.75522
4.39918 2.50781 -1.75521
4.36908 2.49985 -1.74421
4.37901 2.52375 -1.7522
4.35589 2.52873 -1.7462
4.36081 2.55063 -1.75119
4.3477 2.56059 -1.74918
4.34561 2.57852 -1.75218
4.33655 2.5825 -1.75017
4.33246 2.59843 -1.75117
4.32336 2.61138 -1.75116
4.32328 2.6303 -1.75515
4.30817 2.64026 -1.75215
4.30608 2.65719 -1.75514
4.29198 2.66716 -1.75213
4.28893 2.67413 -1.75313
4.28985 2.69404 -1.75712
4.27775 2.706 -1.75511
4.25863 2.71198 -1.75111
4.28761 2.74982 -1.76709
4.25347 2.74684 -1.75609
4.27143 2.77771 -1.76808
4.24834 2.77174 -1.76008
4.26129 2.79962 -1.76907
4.22715 2.79665 -1.75807
4.22808 2.81657 -1.76206
4.21097 2.82454 -1.75905
4.22993 2.85641 -1.77104
4.20781 2.86139 -1.76603
4.2158 2.87633 -1.77103
4.19167 2.87933 -1.76402
4.18559 2.89427 -1.76602
4.17449 2.90623 -1.76501
4.18245 2.93113 -1.773
4.17736 2.94807 -1.77499
4.14823 2.94708 -1.76599
4.16523 2.96899 -1.77498
4.14813 2.97597 -1.77197
4.123 2.97798 -1.76497
4.12394 2.9989 -1.76996
4.12488 3.01982 -1.77495
4.09875 3.02083 -1.76695
4.11172 3.04971 -1.77693
4.10267 3.0537 -1.77493
4.08055 3.0577 -1.76993
4.0855 3.08161 -1.77692
4.08243 3.09855 -1.77991
4.06934 3.10951 -1.7779
4.06025 3.12347 -1.77889
4.0512 3.12646 -1.77689
4.04713 3.1434 -1.77988
4.02702 3.1484 -1.77488
4.03198 3.17231 -1.78187
4.0219 3.18527 -1.78186
4.0068 3.19425 -1.77986
4.00073 3.21019 -1.78185
3.99569 3.21717 -1.78184
3.98861 3.23212 -1.78284
3.96549 3.23413 -1.77683
3.96344 3.25307 -1.78082
3.97242 3.28097 -1.78981
3.95431 3.28795 -1.7858
3.94824 3.3039 -1.7888
3.92615 3.29594 -1.7798
3.9251 3.31687 -1.78479
3.91703 3.33183 -1.78578
3.90394 3.34081 -1.78477
3.89587 3.35577 -1.78577
3.8868 3.36973 -1.78676
3.88577 3.37969 -1.78875
3.8767 3.39266 -1.78975
3.86963 3.40861 -1.79174
3.85755 3.41959 -1.79073
3.84647 3.43156 -1.79072
3.83439 3.44253 -1.79072
3.8193 3.45151 -1.78871
3.82932 3.47045 -1.7957
3.81523 3.48043 -1.7947
3.81118 3.49837 -1.79769
3.78907 3.50039 -1.79268
3.77899 3.51435 -1.79268
3.77193 3.52931 -1.79467
3.75584 3.53631 -1.79266
3.75783 3.55026 -1.79666
3.74776 3.56323 -1.79765
3.72866 3.56724 -1.79264
3.73465 3.59614 -1.80163
3.70852 3.59318 -1.79463
3.70146 3.60914 -1.79662
3.68738 3.61812 -1.79462
3.69038 3.63308 -1.79961
3.67228 3.63808 -1.7966
3.66723 3.65604 -1.79959
3.6642 3.67598 -1.80358
3.64409 3.67899 -1.79958
3.63603 3.69496 -1.80157
3.62698 3.69696 -1.79957
3.61993 3.71392 -1.80256
3.59782 3.71395 -1.79756
3.58173 3.72194 -1.79455
3.58673 3.75086 -1.80354
3.57868 3.76582 -1.80653
3.57766 3.78777 -1.81152
3.55756 3.77881 -1.80352
3.54348 3.7888 -1.80351
3.53844 3.80676 -1.8065
3.52235 3.81376 -1.8045
3.50727 3.82176 -1.80349
3.51027 3.84968 -1.81148
3.4962 3.85768 -1.81047
3.50122 3.87563 -1.81646
3.46905 3.8647 -1.80547
3.45598 3.87569 -1.80546
3.44793 3.89066 -1.80745
3.43888 3.90563 -1.80944
3.43285 3.9236 -1.81243
3.4238 3.93957 -1.81542
3.41274 3.93859 -1.81242
3.4047 3.95356 -1.81442
3.39263 3.96655 -1.81541
3.36649 3.9606 -1.80741
3.3675 3.98753 -1.81539
3.34639 3.98856 -1.81039
3.33131 3.99557 -1.80839
3.33232 4.00953 -1.81238
3.32528 4.0275 -1.81637
3.31322 4.0385 -1.81636
3.30116 4.04949 -1.81736
3.27904 4.04853 -1.81136
3.26497 4.05753 -1.81035
3.25794 4.0755 -1.81434
3.24789 4.07651 -1.81234
3.23281 4.08352 -1.81034
3.23685 4.11545 -1.82132
3.20265 4.09954 -1.80833
3.19361 4.11352 -1.81032
3.18961 4.13648 -1.8163
3.1695 4.13751 -1.8123
3.16246 4.14052 -1.8113
3.15343 4.1565 -1.81429
3.13533 4.16053 -1.81129
3.1273 4.17651 -1.81428
3.11726 4.1915 -1.81627
3.10822 4.20648 -1.81926
3.09414 4.20152 -1.81426
3.07907 4.20953 -1.81326
3.07406 4.2305 -1.81824
3.05395 4.23054 -1.81424
3.04291 4.24353 -1.81524
3.03388 4.25952 -1.81823
3.01377 4.25956 -1.81423
3.01882 4.28151 -1.82121
2.99166 4.27258 -1.81322
2.98767 4.29554 -1.8192
2.97159 4.30057 -1.8172
2.95853 4.31157 -1.81819
2.94245 4.3176 -1.81719
